0.015  0.015  0.639
0.017  0.025  0.639
0.019  0.034  0.639
0.023  0.045  0.639
0.030  0.060  0.639
0.032  0.068  0.639
0.033  0.077  0.639
0.034  0.085  0.639
0.038  0.096  0.639
0.038  0.103  0.639
0.042  0.114  0.639
0.044  0.123  0.642
0.046  0.133  0.645
0.046  0.140  0.645
0.046  0.147  0.645
0.050  0.157  0.645
0.053  0.168  0.645
0.053  0.175  0.645
0.057  0.185  0.645
0.057  0.192  0.645
0.057  0.199  0.645
0.061  0.209  0.645
0.069  0.222  0.645
0.073  0.232  0.645
0.073  0.241  0.651
0.073  0.248  0.651
0.075  0.256  0.651
0.077  0.264  0.651
0.081  0.274  0.651
0.081  0.281  0.651
0.085  0.290  0.651
0.089  0.299  0.651
0.089  0.306  0.651
0.089  0.313  0.651
0.092  0.322  0.651
0.097  0.332  0.654
0.097  0.341  0.657
0.101  0.349  0.657
0.109  0.360  0.657
0.109  0.367  0.657
0.109  0.374  0.657
0.113  0.382  0.657
0.117  0.391  0.657
0.117  0.397  0.657
0.120  0.406  0.657
0.122  0.416  0.663
0.123  0.426  0.669
0.131  0.436  0.669
0.131  0.443  0.669
0.131  0.449  0.669
0.135  0.457  0.669
0.138  0.465  0.669
0.140  0.472  0.669
0.142  0.479  0.669
0.142  0.486  0.669
0.152  0.499  0.675
0.156  0.507  0.675
0.160  0.514  0.675
0.160  0.520  0.675
0.162  0.527  0.675
0.164  0.534  0.675
0.168  0.541  0.675
0.168  0.547  0.675
0.172  0.554  0.675
0.172  0.560  0.675
0.174  0.567  0.675
0.176  0.573  0.675
0.176  0.579  0.675
0.180  0.586  0.675
0.180  0.592  0.675
0.184  0.599  0.675
0.192  0.606  0.675
0.192  0.612  0.675
0.192  0.617  0.675
0.196  0.624  0.675
0.200  0.630  0.675
0.200  0.636  0.675
0.204  0.642  0.675
0.204  0.647  0.675
0.204  0.653  0.675
0.208  0.659  0.675
0.208  0.664  0.675
0.212  0.670  0.675
0.216  0.675  0.673
0.216  0.675  0.668
0.218  0.675  0.662
0.220  0.675  0.657
0.220  0.675  0.651
0.224  0.675  0.646
0.232  0.675  0.641
0.232  0.675  0.636
0.234  0.675  0.631
0.235  0.675  0.626
0.235  0.675  0.620
0.239  0.675  0.616
0.239  0.675  0.610
0.243  0.675  0.606
0.243  0.675  0.601
0.245  0.675  0.596
0.247  0.675  0.591
0.247  0.675  0.586
0.251  0.675  0.582
0.251  0.675  0.576
0.255  0.675  0.572
0.259  0.675  0.568
0.259  0.675  0.563
0.259  0.675  0.558
0.263  0.675  0.554
0.263  0.675  0.549
0.271  0.675  0.547
0.271  0.675  0.542
0.275  0.678  0.540
0.278  0.680  0.538
0.278  0.680  0.534
0.282  0.680  0.530
0.282  0.680  0.525
0.286  0.680  0.522
0.290  0.680  0.519
0.290  0.680  0.514
0.290  0.680  0.510
0.294  0.680  0.507
0.294  0.680  0.502
0.298  0.680  0.499
0.298  0.680  0.495
0.301  0.683  0.493
0.305  0.686  0.492
0.309  0.686  0.489
0.309  0.686  0.485
0.317  0.686  0.485
0.317  0.686  0.480
0.321  0.686  0.478
0.323  0.686  0.475
0.325  0.686  0.472
0.325  0.686  0.467
0.329  0.686  0.465
0.329  0.686  0.461
0.333  0.686  0.459
0.335  0.686  0.456
0.337  0.686  0.453
0.340  0.692  0.453
0.344  0.692  0.452
0.344  0.692  0.447
0.348  0.692  0.446
0.348  0.692  0.442
0.350  0.692  0.439
0.352  0.692  0.437
0.352  0.692  0.433
0.364  0.698  0.439
0.364  0.698  0.435
0.372  0.698  0.437
0.372  0.698  0.433
0.372  0.698  0.429
0.376  0.698  0.429
0.376  0.698  0.425
0.380  0.698  0.425
0.380  0.698  0.421
0.384  0.698  0.421
0.384  0.698  0.417
0.384  0.698  0.413
0.392  0.704  0.417
0.396  0.704  0.417
0.396  0.704  0.413
0.400  0.704  0.413
0.400  0.704  0.409
0.406  0.707  0.412
0.412  0.710  0.414
0.413  0.710  0.412
0.421  0.710  0.416
0.429  0.710  0.420
0.432  0.710  0.420
0.438  0.710  0.422
0.443  0.710  0.424
0.446  0.710  0.424
0.454  0.710  0.429
0.461  0.710  0.433
0.472  0.716  0.441
0.479  0.716  0.445
0.484  0.716  0.447
0.489  0.716  0.449
0.508  0.728  0.465
0.513  0.728  0.467
0.518  0.728  0.469
0.522  0.728  0.471
0.526  0.728  0.472
0.530  0.728  0.474
0.541  0.734  0.482
0.546  0.734  0.484
0.550  0.734  0.486
0.555  0.734  0.488
0.564  0.740  0.495
0.568  0.740  0.497
0.573  0.740  0.499
0.576  0.740  0.499
0.583  0.746  0.503
0.589  0.746  0.507
0.593  0.746  0.509
0.599  0.749  0.512
0.605  0.751  0.516
0.608  0.751  0.516
0.614  0.751  0.520
0.624  0.757  0.529
0.629  0.757  0.533
0.637  0.763  0.537
0.641  0.763  0.540
0.645  0.763  0.542
0.652  0.769  0.546
0.657  0.769  0.551
0.665  0.775  0.555
0.668  0.775  0.555
0.673  0.775  0.560
0.681  0.781  0.566
0.690  0.787  0.573
0.693  0.787  0.573
0.701  0.793  0.577
0.705  0.793  0.582
0.713  0.799  0.586
0.717  0.799  0.588
0.720  0.799  0.591
0.730  0.805  0.600
0.735  0.805  0.610
0.743  0.811  0.614
0.746  0.811  0.614
0.757  0.817  0.628
0.759  0.817  0.628
0.761  0.817  0.628
0.765  0.817  0.633
0.774  0.822  0.642
0.782  0.828  0.647
0.785  0.828  0.652
0.790  0.831  0.657
0.796  0.834  0.662
0.809  0.846  0.671
0.813  0.846  0.681
0.827  0.858  0.690
0.836  0.864  0.705
0.845  0.870  0.715
0.850  0.873  0.718
0.854  0.876  0.720
0.863  0.882  0.730
0.871  0.888  0.741
0.879  0.893  0.751
0.899  0.911  0.771
0.901  0.911  0.774
0.902  0.911  0.776
0.916  0.923  0.792
0.918  0.923  0.808
0.932  0.935  0.824
0.939  0.941  0.841
0.946  0.947  0.852
0.956  0.955  0.862
0.964  0.963  0.873
0.982  0.980  0.901
0.988  0.986  0.912
0.994  0.992  0.935
1.000  0.996  0.947
1.000  0.994  0.959
