0.000  0.000  0.188
0.001  0.004  0.190
0.002  0.007  0.191
0.002  0.011  0.193
0.003  0.015  0.194
0.004  0.019  0.196
0.005  0.023  0.199
0.006  0.027  0.203
0.006  0.031  0.206
0.007  0.036  0.209
0.008  0.040  0.212
0.009  0.045  0.215
0.010  0.049  0.219
0.011  0.054  0.222
0.012  0.059  0.225
0.013  0.064  0.228
0.015  0.069  0.231
0.016  0.074  0.235
0.017  0.079  0.238
0.018  0.084  0.241
0.019  0.090  0.244
0.020  0.095  0.248
0.022  0.101  0.251
0.023  0.106  0.254
0.024  0.112  0.257
0.026  0.118  0.260
0.027  0.123  0.264
0.028  0.129  0.267
0.030  0.135  0.270
0.031  0.141  0.273
0.033  0.147  0.276
0.034  0.153  0.280
0.036  0.160  0.283
0.037  0.166  0.286
0.039  0.172  0.289
0.040  0.179  0.293
0.042  0.185  0.296
0.043  0.192  0.299
0.045  0.198  0.302
0.047  0.205  0.305
0.048  0.212  0.309
0.050  0.218  0.312
0.052  0.225  0.315
0.054  0.232  0.318
0.055  0.239  0.321
0.057  0.246  0.325
0.059  0.253  0.328
0.061  0.260  0.331
0.063  0.267  0.334
0.065  0.274  0.338
0.067  0.282  0.341
0.069  0.289  0.344
0.071  0.296  0.347
0.073  0.304  0.350
0.075  0.311  0.354
0.077  0.318  0.357
0.079  0.326  0.360
0.081  0.333  0.363
0.083  0.341  0.367
0.086  0.349  0.370
0.088  0.356  0.373
0.090  0.364  0.376
0.092  0.371  0.379
0.095  0.379  0.383
0.097  0.386  0.385
0.099  0.389  0.383
0.102  0.392  0.382
0.104  0.395  0.381
0.106  0.399  0.379
0.109  0.402  0.378
0.111  0.405  0.376
0.114  0.408  0.375
0.116  0.412  0.373
0.119  0.415  0.372
0.121  0.418  0.370
0.124  0.421  0.369
0.126  0.424  0.367
0.129  0.428  0.366
0.132  0.431  0.364
0.134  0.434  0.362
0.137  0.437  0.361
0.140  0.440  0.359
0.143  0.444  0.358
0.145  0.447  0.356
0.148  0.450  0.354
0.151  0.453  0.353
0.154  0.457  0.351
0.157  0.460  0.349
0.160  0.463  0.348
0.163  0.466  0.346
0.166  0.469  0.344
0.169  0.473  0.343
0.172  0.476  0.341
0.175  0.479  0.339
0.178  0.482  0.338
0.181  0.485  0.336
0.184  0.489  0.335
0.187  0.492  0.333
0.190  0.495  0.331
0.193  0.498  0.330
0.197  0.502  0.328
0.200  0.505  0.327
0.203  0.508  0.325
0.206  0.511  0.324
0.210  0.514  0.322
0.213  0.518  0.321
0.217  0.521  0.319
0.220  0.524  0.318
0.223  0.527  0.316
0.227  0.531  0.315
0.230  0.534  0.314
0.234  0.537  0.312
0.237  0.540  0.311
0.241  0.543  0.310
0.244  0.547  0.308
0.248  0.550  0.307
0.252  0.553  0.306
0.255  0.556  0.305
0.259  0.559  0.304
0.263  0.563  0.303
0.266  0.566  0.302
0.270  0.569  0.301
0.274  0.572  0.300
0.278  0.576  0.299
0.281  0.579  0.298
0.285  0.582  0.297
0.289  0.585  0.296
0.293  0.588  0.295
0.299  0.592  0.297
0.308  0.595  0.301
0.316  0.598  0.305
0.325  0.601  0.309
0.333  0.604  0.313
0.342  0.608  0.317
0.351  0.611  0.321
0.359  0.614  0.325
0.368  0.617  0.329
0.376  0.621  0.333
0.385  0.624  0.338
0.393  0.627  0.342
0.402  0.630  0.346
0.410  0.633  0.350
0.419  0.637  0.355
0.427  0.640  0.359
0.436  0.643  0.363
0.444  0.646  0.367
0.452  0.649  0.372
0.461  0.653  0.376
0.469  0.656  0.381
0.478  0.659  0.385
0.486  0.662  0.390
0.494  0.666  0.394
0.502  0.669  0.399
0.511  0.672  0.403
0.519  0.675  0.408
0.527  0.678  0.412
0.535  0.682  0.417
0.543  0.685  0.422
0.552  0.688  0.426
0.560  0.691  0.431
0.568  0.695  0.436
0.576  0.698  0.441
0.584  0.701  0.445
0.592  0.704  0.450
0.599  0.707  0.455
0.607  0.711  0.460
0.615  0.714  0.465
0.623  0.717  0.470
0.631  0.720  0.475
0.638  0.723  0.479
0.646  0.727  0.484
0.654  0.730  0.489
0.661  0.733  0.494
0.669  0.736  0.500
0.676  0.740  0.505
0.683  0.743  0.510
0.691  0.746  0.515
0.698  0.749  0.520
0.705  0.752  0.525
0.712  0.756  0.530
0.719  0.759  0.536
0.726  0.762  0.541
0.733  0.765  0.546
0.740  0.768  0.551
0.747  0.772  0.557
0.754  0.775  0.562
0.761  0.778  0.568
0.767  0.781  0.573
0.774  0.785  0.578
0.781  0.788  0.584
0.787  0.791  0.589
0.793  0.794  0.595
0.797  0.795  0.600
0.801  0.795  0.606
0.804  0.796  0.612
0.807  0.796  0.617
0.810  0.796  0.623
0.813  0.797  0.628
0.817  0.797  0.634
0.820  0.798  0.640
0.823  0.799  0.646
0.826  0.800  0.651
0.830  0.800  0.657
0.833  0.801  0.663
0.836  0.803  0.669
0.839  0.804  0.675
0.842  0.805  0.681
0.846  0.806  0.686
0.849  0.808  0.692
0.852  0.809  0.698
0.855  0.811  0.704
0.859  0.813  0.710
0.862  0.814  0.716
0.865  0.816  0.722
0.868  0.818  0.729
0.871  0.820  0.735
0.875  0.823  0.741
0.878  0.825  0.747
0.881  0.827  0.753
0.884  0.830  0.759
0.887  0.833  0.766
0.891  0.835  0.772
0.894  0.838  0.778
0.897  0.841  0.785
0.900  0.844  0.791
0.904  0.847  0.797
0.907  0.851  0.804
0.910  0.854  0.810
0.913  0.857  0.816
0.916  0.861  0.823
0.920  0.865  0.829
0.923  0.869  0.836
0.926  0.873  0.843
0.929  0.877  0.849
0.932  0.881  0.856
0.936  0.885  0.862
0.939  0.890  0.869
0.942  0.894  0.876
0.945  0.899  0.882
0.949  0.904  0.889
0.952  0.909  0.896
0.955  0.914  0.903
0.958  0.919  0.909
0.961  0.925  0.916
0.965  0.922  0.913
0.968  0.926  0.918
0.971  0.930  0.923
0.974  0.934  0.928
0.977  0.940  0.935
0.981  0.946  0.942
0.984  0.952  0.949
0.986  0.953  0.951
0.987  0.954  0.952
0.989  0.955  0.954
0.990  0.962  0.961
0.992  0.968  0.968
