0.064  0.030  0.200
0.065  0.031  0.203
0.065  0.032  0.205
0.065  0.032  0.208
0.067  0.035  0.211
0.067  0.035  0.214
0.067  0.037  0.216
0.068  0.038  0.219
0.068  0.038  0.222
0.068  0.039  0.225
0.069  0.040  0.227
0.069  0.041  0.230
0.070  0.043  0.233
0.070  0.043  0.236
0.070  0.044  0.238
0.070  0.044  0.241
0.071  0.046  0.244
0.071  0.047  0.247
0.072  0.049  0.249
0.072  0.049  0.252
0.071  0.050  0.255
0.071  0.050  0.258
0.072  0.052  0.260
0.072  0.053  0.263
0.073  0.055  0.266
0.073  0.056  0.269
0.074  0.057  0.271
0.074  0.058  0.274
0.074  0.059  0.277
0.077  0.063  0.280
0.076  0.063  0.282
0.076  0.064  0.285
0.077  0.066  0.288
0.077  0.067  0.291
0.077  0.068  0.293
0.078  0.070  0.296
0.078  0.071  0.299
0.077  0.071  0.302
0.079  0.074  0.304
0.079  0.075  0.307
0.080  0.077  0.310
0.079  0.078  0.313
0.081  0.080  0.315
0.083  0.083  0.318
0.084  0.085  0.321
0.085  0.088  0.324
0.087  0.091  0.326
0.088  0.093  0.329
0.090  0.097  0.332
0.091  0.098  0.335
0.096  0.104  0.337
0.099  0.108  0.340
0.099  0.110  0.343
0.100  0.112  0.345
0.103  0.116  0.348
0.106  0.120  0.351
0.107  0.122  0.354
0.110  0.127  0.356
0.110  0.128  0.359
0.112  0.131  0.362
0.113  0.134  0.365
0.115  0.137  0.367
0.117  0.141  0.370
0.119  0.144  0.373
0.122  0.147  0.376
0.124  0.151  0.378
0.126  0.154  0.381
0.128  0.157  0.384
0.130  0.161  0.387
0.132  0.164  0.389
0.135  0.168  0.392
0.140  0.174  0.395
0.142  0.178  0.398
0.145  0.181  0.400
0.147  0.185  0.403
0.149  0.188  0.406
0.151  0.191  0.409
0.152  0.194  0.411
0.154  0.197  0.414
0.155  0.200  0.417
0.158  0.204  0.420
0.161  0.209  0.422
0.164  0.213  0.425
0.167  0.217  0.428
0.169  0.220  0.431
0.171  0.224  0.433
0.174  0.227  0.436
0.176  0.231  0.439
0.178  0.234  0.442
0.180  0.238  0.444
0.183  0.242  0.447
0.185  0.245  0.450
0.187  0.249  0.453
0.189  0.252  0.455
0.191  0.256  0.458
0.194  0.260  0.461
0.195  0.263  0.464
0.197  0.266  0.466
0.198  0.269  0.469
0.200  0.272  0.472
0.201  0.275  0.475
0.203  0.278  0.477
0.204  0.282  0.480
0.207  0.286  0.483
0.210  0.290  0.485
0.212  0.293  0.488
0.215  0.297  0.491
0.217  0.301  0.494
0.219  0.304  0.496
0.221  0.308  0.499
0.223  0.311  0.502
0.226  0.316  0.505
0.229  0.320  0.507
0.232  0.324  0.510
0.235  0.328  0.513
0.238  0.333  0.516
0.240  0.336  0.518
0.242  0.340  0.521
0.244  0.344  0.524
0.246  0.347  0.527
0.249  0.351  0.529
0.251  0.355  0.532
0.253  0.359  0.535
0.256  0.363  0.538
0.259  0.367  0.540
0.262  0.371  0.543
0.265  0.375  0.546
0.268  0.379  0.549
0.271  0.384  0.551
0.274  0.388  0.554
0.277  0.392  0.557
0.279  0.396  0.560
0.282  0.400  0.562
0.285  0.404  0.565
0.288  0.408  0.568
0.290  0.412  0.571
0.294  0.417  0.573
0.297  0.421  0.576
0.301  0.426  0.579
0.304  0.430  0.582
0.308  0.435  0.584
0.311  0.439  0.587
0.313  0.443  0.590
0.316  0.447  0.593
0.319  0.451  0.595
0.322  0.455  0.598
0.326  0.460  0.601
0.330  0.464  0.604
0.334  0.469  0.606
0.337  0.473  0.609
0.340  0.477  0.612
0.343  0.481  0.615
0.346  0.486  0.617
0.349  0.490  0.620
0.351  0.494  0.623
0.354  0.498  0.625
0.357  0.502  0.628
0.362  0.507  0.631
0.367  0.512  0.634
0.373  0.517  0.636
0.376  0.521  0.639
0.379  0.525  0.642
0.381  0.530  0.645
0.384  0.533  0.647
0.387  0.537  0.650
0.389  0.541  0.653
0.392  0.545  0.656
0.395  0.549  0.658
0.398  0.554  0.661
0.401  0.558  0.664
0.405  0.562  0.667
0.408  0.566  0.669
0.411  0.570  0.672
0.414  0.574  0.675
0.417  0.578  0.678
0.420  0.582  0.680
0.424  0.587  0.683
0.427  0.591  0.686
0.430  0.595  0.689
0.434  0.599  0.691
0.438  0.604  0.694
0.443  0.608  0.697
0.447  0.613  0.700
0.450  0.617  0.702
0.452  0.621  0.705
0.455  0.625  0.708
0.457  0.628  0.711
0.460  0.632  0.713
0.464  0.636  0.716
0.467  0.641  0.719
0.471  0.645  0.722
0.474  0.649  0.724
0.478  0.653  0.727
0.481  0.657  0.730
0.484  0.661  0.733
0.487  0.665  0.735
0.490  0.669  0.738
0.493  0.673  0.741
0.495  0.677  0.744
0.498  0.681  0.746
0.501  0.685  0.749
0.504  0.689  0.752
0.507  0.693  0.755
0.510  0.697  0.757
0.513  0.701  0.760
0.516  0.705  0.763
0.519  0.709  0.765
0.522  0.713  0.768
0.525  0.716  0.771
0.528  0.720  0.774
0.531  0.724  0.776
0.534  0.728  0.779
0.537  0.732  0.782
0.540  0.736  0.785
0.544  0.741  0.787
0.548  0.745  0.790
0.552  0.749  0.793
0.556  0.753  0.796
0.559  0.757  0.798
0.563  0.761  0.801
0.566  0.765  0.804
0.569  0.769  0.807
0.572  0.773  0.809
0.575  0.777  0.812
0.579  0.780  0.815
0.582  0.784  0.818
0.586  0.788  0.820
0.589  0.792  0.823
0.594  0.796  0.826
0.598  0.800  0.829
0.603  0.804  0.831
0.607  0.808  0.834
0.610  0.812  0.837
0.614  0.816  0.840
0.617  0.820  0.842
0.620  0.824  0.845
0.623  0.828  0.848
0.626  0.832  0.851
0.629  0.835  0.853
0.632  0.839  0.856
0.635  0.843  0.859
0.639  0.847  0.862
0.642  0.851  0.864
0.645  0.855  0.867
0.648  0.858  0.870
0.656  0.862  0.873
0.663  0.866  0.875
0.665  0.870  0.878
0.672  0.874  0.881
0.677  0.878  0.884
0.682  0.881  0.886
0.684  0.885  0.889
0.691  0.889  0.892
0.699  0.893  0.895
0.701  0.896  0.897
0.708  0.900  0.900
