0.198  0.033  0.201
0.202  0.035  0.205
0.209  0.038  0.209
0.213  0.040  0.210
0.216  0.042  0.210
0.219  0.044  0.213
0.221  0.046  0.212
0.223  0.048  0.214
0.225  0.050  0.213
0.228  0.053  0.211
0.231  0.055  0.213
0.231  0.056  0.211
0.233  0.058  0.213
0.235  0.059  0.212
0.237  0.061  0.211
0.240  0.062  0.210
0.243  0.064  0.210
0.249  0.066  0.215
0.254  0.068  0.221
0.256  0.069  0.219
0.258  0.070  0.218
0.260  0.073  0.217
0.263  0.076  0.220
0.266  0.079  0.220
0.269  0.080  0.222
0.272  0.081  0.221
0.274  0.082  0.220
0.276  0.083  0.222
0.278  0.084  0.220
0.281  0.086  0.220
0.284  0.088  0.222
0.286  0.089  0.224
0.288  0.090  0.219
0.290  0.091  0.217
0.293  0.094  0.220
0.296  0.095  0.219
0.299  0.095  0.221
0.302  0.097  0.220
0.306  0.099  0.220
0.310  0.101  0.223
0.314  0.103  0.223
0.317  0.105  0.225
0.320  0.107  0.224
0.321  0.109  0.222
0.322  0.110  0.224
0.324  0.112  0.222
0.325  0.114  0.223
0.328  0.117  0.223
0.331  0.120  0.226
0.334  0.121  0.224
0.337  0.122  0.223
0.339  0.123  0.224
0.341  0.124  0.222
0.343  0.125  0.224
0.343  0.126  0.220
0.343  0.128  0.218
0.346  0.130  0.220
0.349  0.132  0.223
0.351  0.133  0.224
0.352  0.134  0.218
0.354  0.135  0.219
0.355  0.137  0.217
0.357  0.138  0.215
0.359  0.139  0.217
0.361  0.141  0.218
0.365  0.145  0.218
0.369  0.148  0.222
0.373  0.152  0.222
0.376  0.154  0.225
0.379  0.156  0.223
0.382  0.158  0.226
0.385  0.160  0.224
0.386  0.161  0.222
0.388  0.163  0.223
0.389  0.165  0.221
0.391  0.167  0.223
0.392  0.169  0.221
0.393  0.170  0.223
0.394  0.171  0.224
0.395  0.172  0.221
0.396  0.174  0.219
0.400  0.176  0.221
0.404  0.179  0.224
0.408  0.181  0.223
0.410  0.184  0.222
0.411  0.186  0.224
0.413  0.189  0.223
0.414  0.191  0.225
0.415  0.193  0.226
0.417  0.194  0.228
0.418  0.195  0.225
0.419  0.196  0.223
0.420  0.198  0.224
0.426  0.201  0.224
0.432  0.204  0.228
0.438  0.209  0.228
0.439  0.211  0.231
0.441  0.214  0.233
0.442  0.215  0.230
0.444  0.215  0.231
0.448  0.217  0.229
0.452  0.219  0.231
0.456  0.222  0.230
0.457  0.224  0.228
0.459  0.225  0.229
0.460  0.226  0.231
0.462  0.228  0.232
0.464  0.229  0.229
0.465  0.235  0.231
0.467  0.236  0.232
0.469  0.237  0.233
0.470  0.237  0.234
0.471  0.242  0.234
0.472  0.235  0.235
0.473  0.236  0.236
0.479  0.240  0.240
0.485  0.250  0.244
0.491  0.253  0.248
0.492  0.257  0.249
0.493  0.261  0.250
0.495  0.263  0.251
0.496  0.267  0.252
0.497  0.276  0.259
0.499  0.282  0.260
0.500  0.283  0.260
0.501  0.284  0.261
0.503  0.288  0.262
0.505  0.292  0.263
0.507  0.293  0.264
0.509  0.300  0.266
0.511  0.302  0.268
0.513  0.304  0.269
0.515  0.306  0.271
0.518  0.319  0.273
0.521  0.321  0.274
0.524  0.326  0.276
0.527  0.330  0.277
0.528  0.333  0.278
0.530  0.336  0.279
0.531  0.339  0.280
0.533  0.342  0.279
0.535  0.346  0.279
0.536  0.346  0.279
0.538  0.354  0.280
0.541  0.356  0.282
0.544  0.358  0.283
0.547  0.366  0.285
0.550  0.368  0.287
0.552  0.369  0.287
0.553  0.375  0.286
0.555  0.375  0.286
0.556  0.375  0.285
0.560  0.383  0.285
0.564  0.385  0.287
0.568  0.391  0.289
0.570  0.395  0.289
0.571  0.396  0.289
0.572  0.403  0.289
0.574  0.410  0.289
0.576  0.412  0.290
0.578  0.413  0.291
0.580  0.421  0.292
0.581  0.422  0.292
0.583  0.423  0.293
0.584  0.424  0.294
0.586  0.426  0.295
0.588  0.433  0.294
0.590  0.434  0.293
0.592  0.435  0.293
0.593  0.442  0.293
0.595  0.443  0.293
0.596  0.444  0.293
0.598  0.445  0.294
0.604  0.452  0.296
0.609  0.460  0.298
0.611  0.461  0.297
0.612  0.461  0.297
0.614  0.465  0.297
0.615  0.468  0.298
0.619  0.473  0.299
0.623  0.476  0.301
0.627  0.479  0.302
0.629  0.483  0.302
0.630  0.486  0.303
0.632  0.490  0.303
0.633  0.490  0.302
0.637  0.497  0.303
0.641  0.503  0.303
0.645  0.506  0.305
0.646  0.507  0.304
0.648  0.508  0.304
0.649  0.509  0.304
0.651  0.513  0.304
0.653  0.519  0.304
0.655  0.520  0.304
0.657  0.521  0.303
0.663  0.533  0.304
0.669  0.546  0.305
0.675  0.550  0.305
0.677  0.551  0.304
0.679  0.552  0.304
0.680  0.558  0.304
0.682  0.564  0.304
0.684  0.565  0.305
0.686  0.567  0.305
0.692  0.571  0.305
0.698  0.575  0.306
0.700  0.585  0.304
0.702  0.586  0.302
0.704  0.587  0.300
0.704  0.590  0.299
0.704  0.593  0.298
0.704  0.596  0.297
0.710  0.600  0.298
0.716  0.605  0.299
0.720  0.608  0.298
0.724  0.610  0.298
0.728  0.613  0.297
0.731  0.626  0.297
0.734  0.628  0.297
0.736  0.629  0.296
0.738  0.630  0.294
0.740  0.631  0.291
0.743  0.633  0.289
0.746  0.634  0.287
0.749  0.642  0.286
0.751  0.650  0.286
0.757  0.654  0.287
0.763  0.658  0.280
0.765  0.662  0.278
0.766  0.667  0.277
0.768  0.672  0.275
0.769  0.672  0.273
0.775  0.677  0.271
0.781  0.687  0.268
0.787  0.698  0.267
0.791  0.701  0.266
0.795  0.704  0.264
0.799  0.707  0.263
0.805  0.718  0.262
0.811  0.729  0.260
0.812  0.730  0.257
0.814  0.731  0.254
0.815  0.732  0.251
0.817  0.732  0.248
0.822  0.737  0.246
0.828  0.770  0.244
0.837  0.777  0.243
0.846  0.785  0.242
0.848  0.787  0.238
0.850  0.788  0.235
0.852  0.790  0.232
0.856  0.800  0.225
0.860  0.811  0.219
0.864  0.814  0.210
0.888  0.835  0.205
