1.000  0.186  0.050
1.000  0.211  0.061
1.000  0.236  0.071
0.988  0.257  0.081
0.982  0.279  0.091
0.976  0.300  0.101
0.970  0.335  0.111
0.964  0.369  0.121
0.953  0.399  0.129
0.929  0.422  0.136
0.911  0.446  0.143
0.888  0.465  0.149
0.879  0.490  0.157
0.869  0.513  0.165
0.860  0.535  0.172
0.850  0.556  0.179
0.840  0.575  0.186
0.830  0.593  0.193
0.820  0.610  0.199
0.810  0.626  0.205
0.800  0.640  0.211
0.790  0.654  0.217
0.780  0.666  0.223
0.770  0.677  0.228
0.760  0.687  0.233
0.750  0.697  0.238
0.740  0.705  0.243
0.730  0.712  0.248
0.720  0.718  0.252
0.697  0.710  0.256
0.672  0.700  0.260
0.649  0.690  0.264
0.626  0.680  0.267
0.605  0.670  0.270
0.584  0.660  0.273
0.564  0.650  0.276
0.545  0.640  0.279
0.526  0.630  0.281
0.509  0.620  0.283
0.492  0.610  0.285
0.476  0.600  0.287
0.460  0.590  0.289
0.445  0.580  0.290
0.431  0.570  0.291
0.418  0.560  0.292
0.405  0.550  0.293
0.392  0.540  0.293
0.381  0.530  0.293
0.369  0.520  0.293
0.359  0.510  0.293
0.348  0.500  0.293
0.339  0.490  0.292
0.329  0.480  0.291
0.321  0.470  0.290
0.312  0.460  0.289
0.304  0.450  0.288
0.297  0.440  0.286
0.289  0.430  0.284
0.282  0.420  0.282
0.280  0.411  0.284
0.278  0.401  0.286
0.276  0.392  0.287
0.273  0.383  0.288
0.271  0.374  0.289
0.269  0.365  0.289
0.266  0.357  0.289
0.264  0.349  0.289
0.262  0.342  0.288
0.261  0.335  0.287
0.259  0.329  0.286
0.258  0.323  0.285
0.254  0.317  0.282
0.250  0.313  0.280
0.246  0.309  0.277
0.243  0.305  0.275
0.241  0.302  0.272
0.239  0.299  0.270
0.235  0.296  0.268
0.233  0.294  0.267
0.232  0.292  0.265
0.230  0.290  0.264
0.229  0.289  0.263
0.228  0.288  0.262
0.227  0.286  0.261
0.226  0.285  0.261
0.225  0.284  0.260
0.224  0.283  0.259
0.223  0.282  0.259
0.222  0.281  0.258
0.222  0.279  0.257
0.221  0.278  0.256
0.220  0.277  0.255
0.219  0.276  0.255
0.218  0.275  0.254
0.217  0.274  0.253
0.218  0.273  0.253
0.217  0.272  0.252
0.216  0.271  0.251
0.216  0.270  0.251
0.216  0.269  0.250
0.215  0.268  0.249
0.214  0.266  0.249
0.214  0.265  0.248
0.213  0.264  0.247
0.212  0.263  0.247
0.211  0.262  0.246
0.210  0.261  0.245
0.209  0.260  0.245
0.208  0.259  0.244
0.207  0.258  0.244
0.207  0.257  0.243
0.206  0.256  0.243
0.205  0.255  0.242
0.204  0.254  0.242
0.203  0.252  0.241
0.204  0.251  0.241
0.204  0.250  0.241
0.203  0.249  0.240
0.203  0.248  0.239
0.202  0.247  0.238
0.199  0.246  0.237
0.197  0.245  0.235
0.196  0.244  0.234
0.195  0.243  0.233
0.194  0.242  0.231
0.194  0.241  0.230
0.196  0.239  0.230
0.195  0.238  0.229
0.194  0.237  0.228
0.193  0.236  0.227
0.192  0.235  0.226
0.191  0.234  0.225
0.190  0.233  0.224
0.189  0.232  0.224
0.188  0.231  0.223
0.188  0.230  0.222
0.188  0.229  0.222
0.187  0.228  0.221
0.186  0.226  0.220
0.185  0.225  0.219
0.185  0.224  0.218
0.184  0.223  0.217
0.183  0.222  0.216
0.182  0.221  0.215
0.181  0.220  0.214
0.180  0.219  0.213
0.179  0.218  0.212
0.178  0.217  0.211
0.177  0.216  0.210
0.177  0.215  0.209
0.176  0.214  0.208
0.176  0.212  0.207
0.175  0.211  0.206
0.174  0.210  0.205
0.173  0.209  0.204
0.172  0.208  0.203
0.172  0.207  0.202
0.171  0.206  0.201
0.170  0.205  0.200
0.169  0.204  0.199
0.168  0.203  0.198
0.167  0.202  0.197
0.166  0.201  0.196
0.165  0.199  0.195
0.164  0.198  0.194
0.163  0.197  0.193
0.163  0.196  0.192
0.162  0.195  0.192
0.161  0.194  0.191
0.160  0.193  0.190
0.159  0.192  0.189
0.159  0.191  0.188
0.158  0.190  0.187
0.157  0.189  0.186
0.156  0.188  0.185
0.156  0.186  0.184
0.155  0.185  0.183
0.154  0.184  0.182
0.153  0.183  0.181
0.152  0.182  0.180
0.152  0.181  0.179
0.151  0.180  0.178
0.150  0.179  0.177
0.149  0.178  0.176
0.149  0.177  0.175
0.148  0.176  0.174
0.147  0.175  0.173
0.146  0.174  0.172
0.145  0.172  0.172
0.144  0.171  0.171
0.144  0.170  0.170
0.143  0.169  0.169
0.142  0.168  0.168
0.141  0.167  0.167
0.140  0.166  0.166
0.140  0.165  0.165
0.139  0.164  0.164
0.138  0.163  0.163
0.137  0.161  0.162
0.137  0.160  0.161
0.136  0.159  0.159
0.135  0.158  0.158
0.134  0.157  0.157
0.133  0.155  0.156
0.132  0.154  0.155
0.131  0.153  0.154
0.131  0.151  0.153
0.130  0.150  0.152
0.129  0.149  0.151
0.129  0.148  0.150
0.128  0.146  0.149
0.127  0.145  0.148
0.126  0.144  0.146
0.126  0.143  0.145
0.125  0.142  0.144
0.124  0.140  0.143
0.123  0.139  0.142
0.122  0.138  0.141
0.121  0.137  0.140
0.121  0.136  0.139
0.120  0.135  0.138
0.120  0.134  0.137
0.119  0.132  0.136
0.118  0.131  0.135
0.117  0.130  0.134
0.117  0.129  0.132
0.116  0.128  0.131
0.115  0.127  0.130
0.114  0.126  0.129
0.114  0.125  0.128
0.113  0.123  0.127
0.112  0.122  0.126
0.111  0.121  0.125
0.110  0.120  0.124
0.109  0.119  0.123
0.108  0.118  0.122
0.107  0.117  0.121
0.107  0.116  0.119
0.106  0.115  0.118
0.105  0.114  0.117
0.104  0.112  0.116
0.103  0.111  0.115
0.102  0.110  0.114
0.101  0.109  0.113
0.100  0.108  0.112
0.100  0.107  0.111
0.099  0.106  0.110
0.098  0.105  0.109
0.098  0.104  0.109
0.097  0.104  0.108
0.097  0.103  0.107
0.096  0.102  0.107
0.096  0.102  0.107
0.096  0.102  0.106
0.095  0.101  0.106
0.096  0.101  0.106
